-0.205609105019 0.302253248468 0.930788842716
-0.205022754575 0.301391290889 0.931197594436
-0.204439484743 0.300533861927 0.931602863302
-0.203859273625 0.299680929392 0.932004687282
-0.202539007558 0.297740011063 0.932914163377
-0.201966323088 0.296898143204 0.933306539622
-0.200655282174 0.294970786768 0.9342000282
-0.200090038231 0.294139856983 0.934583180426
-0.199527741053 0.293313259053 0.934963107622
-0.198229987835 0.291405877745 0.935835181182
-0.197675001753 0.290590026378 0.936206190031
-0.197122897367 0.289778411219 0.93657409516
-0.195838845356 0.287890730041 0.937425236595
-0.195293922794 0.287089672651 0.937784518734
-0.194018856162 0.285214904781 0.938620872101
-0.192748419752 0.28334724062 0.939447916553
-0.192214857358 0.282562884348 0.939793416129
-0.190953027259 0.280708304434 0.940606075465
-0.190426439428 0.279934200041 0.940943470573
-0.189902561409 0.279164079177 0.941278085407
-0.188654024733 0.277328608766 0.942071388862
-0.188136995938 0.276568556727 0.942398166482
-0.186897185729 0.274745915089 0.943177673669
-0.186386924382 0.273995811656 0.943496798942
-0.18587927114 0.273249542235 0.943813320646
-0.185374207525 0.272507079664 0.944127266166
-0.184871715216 0.271768397009 0.94443866254
-0.184371776048 0.271033467568 0.944747536464
-0.183874372008 0.270302264861 0.945053914298
-0.182663122854 0.268522029353 0.945796015693
-0.182172206175 0.267800362381 0.946095266453
-0.181683767717 0.267082338492 0.946392113774
-0.240002010988 -0.293272747705 0.92541349146
0.0455265061841 0.0556318261463 0.997412871961
0.305876529903 0.373768858298 0.875634849136
0.304827900019 0.372487474614 0.876546081291
0.304734604754 0.372373578649 0.876626909574
0.303696813658 0.371105439166 0.877524357722
0.302665021337 0.369844629947 0.87841267896
0.301639188066 0.36859110245 0.879291987577
0.299675316917 0.366191224607 0.88096463689
0.298662633025 0.364953765486 0.881821626347
0.297655800561 0.363723456574 0.882669967502
0.296654780063 0.362500249652 0.883509768179
0.296598027191 0.362431004167 0.883557229321
0.295607122201 0.361220157642 0.884384773171
0.293686198262 0.358872761689 0.885978982746
0.29270803439 0.357677484648 0.886785669471
0.291735487743 0.356489071631 0.887584332331
0.290768519912 0.355307475702 0.888375070304
0.290737108087 0.3552691939 0.888400660652
0.289779740617 0.354099328892 0.889180165774
0.288827830177 0.352936132158 0.88995200496
0.287881339393 0.351779558027 0.890716271875
0.28694023108 0.350629561063 0.891473058873
0.28600446825 0.349486096066 0.892222457012
0.285074014111 0.348349118079 0.892964556078
0.284148832071 0.347218582388 0.8936994446
0.283228885738 0.346094444522 0.894427209869
0.282314138923 0.344976660261 0.895147937963
0.281404555643 0.343865185634 0.895861713755
0.28050010012 0.342759976922 0.896568620939
0.279600736782 0.341660990659 0.897268742046
0.278706430268 0.340568183634 0.897962158458
0.27690793722 0.338370399263 0.899348356983
0.276025167193 0.337291689676 0.90002467919
0.275147353586 0.336219036636 0.900694561557
0.273367485768 0.334044090851 0.902044767787
0.272501038992 0.332985327683 0.902698152926
0.271639448834 0.331932499105 0.903345352495
0.270782681049 0.330885563274 0.903986439976
0.269930701617 0.329844478619 0.904621487833
0.269083476743 0.328809203842 0.90525056753
0.268240972854 0.327779697919 0.905873749545
0.267403156602 0.326755920102 0.906491103386
0.265673602976 0.324642800584 0.907758001182
0.26484666104 0.32363230973 0.908360266764
0.26402431021 0.322627429029 0.908956932784
0.263206517883 0.32162811864 0.909548064834
0.26239325168 0.320634339 0.910133727607
0.261584479451 0.319646050821 0.910713984907
0.260780169274 0.318663215095 0.911288899668
0.25998028945 0.317685793088 0.911858533966
0.259184808509 0.316713746344 0.912422949029
0.258393695203 0.315747036682 0.912982205251
0.257606918512 0.314785626193 0.913536362208
0.256824447638 0.313829477246 0.914085478665
0.25516772118 0.311804600449 0.915241675847
0.254395398023 0.310860852893 0.915777544824
0.253627290038 0.309922256105 0.916308568616
0.252863367199 0.308988773397 0.916834802701
0.252103599708 0.308060368355 0.917356301806
0.251347957985 0.307137004834 0.917873119924
0.250596412674 0.306218646961 0.918385310318
0.249848934637 0.305305259133 0.918892925539
0.249105494958 0.304396806015 0.919396017432
0.24750021835 0.302435528509 0.920476177319
0.246766410602 0.301538844314 0.9209672437
0.246036555101 0.300646989609 0.92145396043
0.245310623705 0.299759930006 0.921936376471
0.244588588489 0.298877631382 0.922414540129
0.243011517842 0.296950107875 0.923453320764
0.242298840188 0.296079245013 0.923920100829
0.241589975011 0.29521304084 0.924382791106
0.240884895158 0.294351462178 0.924841437219
0.240183573691 0.293494476109 0.925296084193
0.239485983881 0.292642049973 0.925746776453
0.237941243209 0.290754735816 0.926739255876
0.237252689547 0.289913350626 0.927179276317
0.236567786831 0.289076426748 0.927615492396
0.2358865091 0.288243932455 0.928047946082
0.235208830594 0.287415836274 0.928476678797
0.233690687164 0.285560709339 0.929431946952
0.233021784149 0.284743336504 0.92985056887
0.232356402109 0.28393026616 0.93026561065
0.230854290231 0.282094661318 0.931197561604
0.230197532234 0.281292129451 0.931602830643
0.229544218329 0.280493806124 0.932004654794
0.228894324058 0.279699661454 0.932403071529
0.22741257793 0.277889011099 0.933306603914
0.226771107972 0.277105160645 0.933695664836
0.226132982686 0.276325397247 0.934081446651
0.224666828849 0.27453373348 0.934963125046
0.224036980639 0.273764084568 0.935339861925
0.223410403525 0.2729984328 0.935713442933
0.221959107457 0.271225289943 0.936574074333
0.221340663258 0.270469575482 0.936938909175
0.219899505935 0.268708522932 0.937784589868
0.21928909999 0.267962630944 0.938140884432
0.21703315718 0.265205862154 0.93944795458
0.216432370204 0.264471724431 0.939793453959
0.215834682044 0.263741373337 0.940136095476
0.215240070699 0.263014781987 0.940475909538
0.21382913566 0.261290595468 0.941278027717
0.213242281823 0.260573483704 0.941609892064
0.211840934356 0.258861077954 0.942398196545
0.211261746399 0.25815333363 0.94272229784
0.209870164647 0.25645315072 0.943496844445
0.20929855116 0.255754661347 0.943813365916
0.208729853573 0.25505973509 0.944127311205
0.208164051257 0.254368346741 0.94443870735
0.207601123756 0.253680471304 0.944747581047
0.207041050791 0.252996083998 0.945053958655
0.206483812251 0.25231516025 0.9453578662
0.205929388199 0.251637675694 0.945659329382
0.205377758862 0.250963606173 0.945958373577
-0.346306618516 0.145691351705 0.926739313945
0.445180205259 -0.187288244924 0.875635596672
0.445038105192 -0.187228292418 0.875720646922
0.443518886028 -0.186589154316 0.876627335433
0.442008455678 -0.185953713684 0.877524781118
0.440506756129 -0.185321946114 0.87841309991
0.439013729563 -0.184693827282 0.879292406096
0.437529318367 -0.184069332952 0.880162812345
0.436053465141 -0.183448438974 0.881024429727
0.434586112702 -0.182831121292 0.881877367741
0.433127204094 -0.182217355944 0.882721734335
0.431676682591 -0.181607119066 0.883557635931
0.430234491709 -0.181000386894 0.884385177447
0.428800575203 -0.180397135766 0.885204462321
0.427374877081 -0.179797342126 0.886015592529
0.425957341603 -0.179200982525 0.886818668611
0.42454791329 -0.178608033622 0.887613789689
0.423146536926 -0.178018472188 0.888401053493
0.421753157565 -0.177432275106 0.889180556375
0.42036772053 -0.176849419374 0.889952393335
0.418990171424 -0.176269882108 0.890716658041
0.41762045613 -0.17569364054 0.891473442844
0.416258520812 -0.175120672021 0.892222838804
0.416242468595 -0.17511376045 0.892231684171
0.414893796856 -0.174546372454 0.892970716874
0.413552736105 -0.173982186412 0.893702597776
0.412219234018 -0.173421180309 0.894427413112
0.410893238559 -0.172863332255 0.895145247917
0.408247310167 -0.171750341994 0.896568989965
0.406938351759 -0.171199660952 0.897269108995
0.405636753205 -0.170652076213 0.897962523346
0.404342463342 -0.170107566252 0.898649313271
0.403055431317 -0.169566109677 0.899329557912
0.400456142971 -0.168472738231 0.90069518375
0.399185713147 -0.167938265742 0.901358699586
0.396607358239 -0.166852573357 0.902697525284
0.395353372108 -0.166325021842 0.903344728369
0.394106404598 -0.165800423057 0.903985819341
0.392866406196 -0.165278756175 0.904620870664
0.391633327715 -0.1647600005 0.905249953802
0.390407120293 -0.164244135477 0.905873139234
0.389187735394 -0.163731140688 0.906490496468
0.387975124812 -0.163220995851 0.907102094056
0.386769240663 -0.162713680822 0.907707999607
0.384269904222 -0.161662356224 0.908956502419
0.383079662752 -0.161161621614 0.909547636853
0.38189600874 -0.160663658348 0.910133301992
0.380718895394 -0.16016844674 0.910713561642
0.379548276252 -0.159675967244 0.911288478737
0.37838410518 -0.159186200452 0.911858115352
0.377226336375 -0.158699127093 0.912422532715
0.376074924359 -0.158214728035 0.912981791221
0.374929823983 -0.157732984285 0.913535950446
0.373790990424 -0.157253876984 0.914085069154
0.372658379184 -0.156777387413 0.914629205318
0.371531946088 -0.156303496988 0.915168416121
0.370411647286 -0.15583218726 0.915702757978
0.368025270942 -0.154828379033 0.916834539595
0.366919482151 -0.154363173246 0.91735604013
0.365819698124 -0.153900493664 0.917872859668
0.364725876133 -0.153440322314 0.918385051472
0.363637973773 -0.152982641355 0.918892668093
0.362555948957 -0.152527433081 0.919395761375
0.361479759915 -0.15207467992 0.919894382469
0.360409365197 -0.151624364433 0.920388581844
0.358089168805 -0.150648394568 0.921453855816
0.357032626165 -0.15020390625 0.921936272419
0.355981754141 -0.149761803564 0.922414436635
0.354936512404 -0.149322069544 0.922888396129
0.353896860935 -0.148884687355 0.923358197934
0.351616862313 -0.147925626465 0.924382816355
0.350590669157 -0.1474939058 0.924841462334
0.349569946061 -0.147064486397 0.925296109173
0.348554654126 -0.146637351889 0.9257468013
0.347544754757 -0.146212486039 0.926193582556
0.346540209662 -0.145789872739 0.926636496202
0.345540980853 -0.145369496007 0.927075584934
0.343315722925 -0.144433461599 0.928048107354
0.342329410619 -0.144018518469 0.928476839217
0.341348299543 -0.143605763505 0.928901890991
0.340372352804 -0.143195181185 0.929323303018
0.338177722455 -0.142272030076 0.930265820878
0.337214395334 -0.141866756469 0.930677320551
0.336256120251 -0.141463608266 0.931085317858
0.334084218219 -0.140550017631 0.932005057755
0.333138345533 -0.140152086764 0.932403472383
0.332197414572 -0.139756234892 0.932798516594
0.330050670346 -0.138851955623 0.933695180144
0.329121921254 -0.138461231897 0.934080964484
0.328198005584 -0.138072541586 0.934463505114
0.327278889099 -0.137685870287 0.934842836991
0.325158827653 -0.136794088901 0.935713157993
0.324251614443 -0.136412424945 0.936083618515
0.322146312722 -0.135526852037 0.936938752308
0.321250865247 -0.135150137568 0.93730055046
0.319160215077 -0.134271023582 0.938140740688
0.317077167795 -0.133394810946 0.938971721659
0.316200326906 -0.133025922749 0.939319677821
0.314131815554 -0.132155824467 0.940136181899
0.31326640146 -0.131791743189 0.940475995517
0.312405433696 -0.131429532489 0.940813011701
0.31035820483 -0.130568386509 0.941610153482
0.30950846051 -0.130210897185 0.941939294821
0.307475503097 -0.129355754314 0.942722601735
0.306636848833 -0.129002930256 0.943044053543
0.305802474635 -0.128651906832 0.943362885308
0.304972350249 -0.128302671316 0.943679124553
0.304146445681 -0.127955211088 0.943992798455
0.303324731187 -0.127609513635 0.944303933848
0.301335036076 -0.126771367874 0.945053552091
0.30052401164 -0.126430170652 0.945357461692
0.2997170835 -0.126090696739 0.945658926915
0.298914222883 -0.125752934028 0.945957973137
0.298115401257 -0.125416870517 0.946254625417
0.0414730419753 0.373409120892 0.926739237987
-0.0533140267952 -0.48002100133 0.875635456585
-0.0532969818529 -0.479867528133 0.875720610223
-0.0531150428492 -0.478229412485 0.876627298946
-0.0530989735034 -0.478084723298 0.876707189638
-0.0529189069413 -0.476463466486 0.877600224699
-0.0527398769665 -0.474851542746 0.878484215982
-0.0525618767402 -0.473248890503 0.879359276264
-0.0523848994478 -0.471655448403 0.880225516729
-0.0522089382999 -0.470071155315 0.881083046995
-0.0520339865328 -0.468495950341 0.881931975132
-0.0518600374094 -0.466929772824 0.882772407685
-0.0516870842202 -0.465372562352 0.883604449703
-0.0515151202836 -0.463824258766 0.884428204753
-0.0513441389468 -0.462284802169 0.885243774945
-0.0511741335865 -0.460754132924 0.886051260958
-0.0508431126495 -0.45777374143 0.887613755838
-0.0506752862896 -0.456262691128 0.888401019835
-0.0506699075838 -0.456214257046 0.888426199599
-0.0505037405041 -0.454718146347 0.889202327695
-0.0503385167452 -0.453230528982 0.889970854203
-0.0501742298717 -0.451751347009 0.890731871627
-0.0500108734816 -0.450280542783 0.89148547118
-0.0498484412058 -0.448818058963 0.892231742799
-0.0496869267095 -0.44736383851 0.89297077517
-0.0495263236916 -0.445917824693 0.893702655743
-0.0493666258857 -0.444479961091 0.894427470753
-0.0492078270604 -0.443050191597 0.895145305234
-0.049049921019 -0.441628460419 0.895856243041
-0.0488929016003 -0.440214712085 0.896560366867
-0.0485783454844 -0.437382563852 0.897962492083
-0.0484233436132 -0.435986980797 0.898649282184
-0.0482692109279 -0.434599223589 0.899329526999
-0.048115941375 -0.433219237727 0.900003304577
-0.0478058058799 -0.430426891144 0.901358583641
-0.0476545132312 -0.429064704623 0.902015812841
-0.0475040664472 -0.427710133973 0.902666829438
-0.0471971918641 -0.424947147447 0.90398691747
-0.0470486924149 -0.423610109907 0.90462196266
-0.0469010216834 -0.422280533853 0.905251039709
-0.0467541738179 -0.420958366599 0.905874219095
-0.046608143006 -0.419643555812 0.906491570325
-0.0464629234741 -0.41833604951 0.907103161951
-0.0463185094881 -0.417035796064 0.907709061583
-0.0461748953527 -0.415742744194 0.908309335903
-0.0460320754117 -0.414456842975 0.908904050681
-0.045890044048 -0.413178041834 0.909493270785
-0.0457487956835 -0.411906290545 0.910077060201
-0.0456083247789 -0.410641539235 0.910655482038
-0.045468625834 -0.409383738383 0.911228598548
-0.0451756963808 -0.406746308732 0.912423474484
-0.045037805832 -0.405504790035 0.912982727824
-0.0449006711539 -0.404270076935 0.913536881918
-0.0447642869784 -0.4030421211 0.914085995534
-0.0446286479764 -0.401820874549 0.914630126639
-0.0444937488577 -0.400606289651 0.915169332421
-0.0443595843708 -0.399398319124 0.915703669292
-0.0442261493028 -0.398196916031 0.916233192905
-0.0440934384792 -0.397002033783 0.916757958163
-0.0439614467637 -0.395813626135 0.917278019231
-0.0438301690581 -0.394631647186 0.917793429547
-0.0435487316876 -0.392094764608 0.918893466913
-0.0434191498139 -0.390928063024 0.919396555883
-0.0432902668271 -0.389767653927 0.919895172696
-0.0431620777627 -0.388613492622 0.92038936782
-0.0430345776942 -0.38746553475 0.920879191047
-0.0429077617326 -0.386323736294 0.921364691509
-0.0427816250261 -0.385188053569 0.921845917682
-0.0425066286811 -0.382715276136 0.922887969328
-0.0423821217997 -0.38159425838 0.923357773414
-0.0422582796428 -0.380479225578 0.923823466202
-0.0421350974921 -0.379370135248 0.924285093486
-0.0420125706657 -0.378266945237 0.924742700456
-0.0417423722168 -0.375834176547 0.925746318438
-0.0416214283387 -0.374745238846 0.926193102255
-0.0415011256787 -0.373662074455 0.926636018446
-0.0413814596871 -0.372584642412 0.927075109704
-0.0412624258505 -0.371512902077 0.927510418164
-0.0409968711939 -0.369121944415 0.928476303792
-0.0408793748966 -0.368064047544 0.928901358387
-0.0407624970708 -0.367011719182 0.929322773215
-0.0406462333338 -0.365964919867 0.92974058809
-0.0403843288995 -0.363606827485 0.930676732806
-0.0402695673474 -0.362573553315 0.931084733191
-0.0401554065303 -0.361545687961 0.931489269312
-0.0400418421948 -0.360523193126 0.931890378796
-0.0397835266922 -0.358197414185 0.932797879219
-0.0396714298075 -0.357188131761 0.933189592841
-0.0395599163815 -0.356184102602 0.933578008561
-0.0393042659763 -0.353882319231 0.934463738629
-0.0391941945677 -0.352891273491 0.934843069294
-0.0390846938329 -0.351905365905 0.935219225719
-0.0388316770115 -0.349627294367 0.936083786792
-0.0387235931685 -0.348654143977 0.936451157947
-0.0384723359586 -0.34639191534 0.937300656328
-0.0383656526245 -0.345431374642 0.9376594489
-0.0379725488323 -0.341892013608 0.938971744285
-0.0378675400571 -0.340946550037 0.93931970033
-0.0377630720349 -0.340005955224 0.93966478108
-0.0376591409361 -0.339070194688 0.94000701709
-0.0374130934007 -0.336854872061 0.940812975894
-0.0373105142246 -0.335931283764 0.941147224464
-0.0370661797774 -0.333731385159 0.941939202325
-0.036822739025 -0.331539533053 0.942722453278
-0.0367223032599 -0.330635243271 0.943043905845
-0.0366223800677 -0.329735568522 0.943362738362
-0.0365229658254 -0.328840476186 0.943678978355
-0.0364240569407 -0.327949933921 0.943992653
-0.0363256498518 -0.327063909655 0.944303789129
-0.0362277410268 -0.326182371589 0.944612413239
-0.0361303269635 -0.325305288191 0.944918551489
-0.0360334041895 -0.324432628197 0.945222229713
-0.0359369692615 -0.323564360603 0.94552347342
0.369835341986 0.0661524856383 0.92673926671
-0.072636418994 -0.0129925106379 0.997273856723
-0.475277167895 -0.0850124174271 0.875719419997
-0.475125719757 -0.0849857032004 0.875804190831
-0.473510672234 -0.0846968197665 0.876706388708
-0.471904929633 -0.0844096007033 0.877599428383
-0.470308430763 -0.0841240350656 0.878483424248
-0.468721114641 -0.0838401119454 0.879358489081
-0.467142920498 -0.0835578204731 0.880224734069
-0.465573787791 -0.083277149819 0.881082268826
-0.464013656205 -0.0829980891947 0.881931201424
-0.462462465662 -0.0827206278543 0.88277163841
-0.460920156331 -0.0824447550956 0.88360368483
-0.459386668629 -0.082170460261 0.884427444252
-0.45786194323 -0.081897732739 0.885243018788
-0.456345921072 -0.081626561965 0.886050509115
-0.454838543358 -0.0813569374221 0.886850014495
-0.453339751566 -0.0810888486424 0.887641632798
-0.451849487449 -0.0808222852074 0.888425460523
-0.450367693046 -0.0805572367494 0.889201592817
-0.448894310678 -0.0802936929517 0.889970123495
-0.447429282961 -0.0800316435496 0.89073114506
-0.445972552802 -0.0797710783312 0.891484748725
-0.444524063408 -0.0795119871378 0.892231024429
-0.443083758286 -0.0792543598646 0.892970060856
-0.441651581249 -0.0789981864614 0.893701945458
-0.440227476417 -0.0787434569329 0.894426764469
-0.438811388219 -0.0784901613392 0.895144602923
-0.437403261399 -0.0782382897965 0.895855544676
-0.436003041015 -0.0779878324774 0.896559672421
-0.434610672441 -0.0777387796111 0.897257067704
-0.433226101373 -0.0774911214841 0.897947810945
-0.430442000167 -0.0769927896146 0.899328524422
-0.429075217798 -0.0767483144301 0.90000230761
-0.427716078743 -0.0765052063986 0.900669700489
-0.424958261778 -0.0760125585391 0.902015835056
-0.42361665523 -0.0757725845101 0.902666851528
-0.422282538728 -0.0755339502304 0.903311729055
-0.420955859675 -0.0752966462919 0.903950540275
-0.419636565816 -0.0750606633479 0.904583356827
-0.418324605239 -0.0748259921129 0.905210249365
-0.417019926375 -0.0745926233625 0.905831287573
-0.414332974296 -0.0741120214825 0.90710285783
-0.413045163889 -0.0738816699573 0.907708759147
-0.411764486134 -0.0736525942544 0.908309035141
-0.410490890592 -0.0734247853519 0.90890375158
-0.409224327174 -0.0731982342901 0.909492973335
-0.407964746136 -0.0729729321715 0.910076764389
-0.406712098083 -0.0727488701606 0.910655187853
-0.405466333966 -0.0725260394839 0.911228305979
-0.404227405082 -0.0723044314301 0.911796180172
-0.402995263073 -0.0720840373493 0.912358871004
-0.401769859927 -0.0718648486534 0.912916438226
-0.400551147973 -0.0716468568157 0.913468940778
-0.399339079886 -0.071430053371 0.914016436806
-0.398133608681 -0.071214429915 0.914558983669
-0.395577155279 -0.0707568403749 0.915703108961
-0.39438724782 -0.0705440017643 0.916232635618
-0.393203798799 -0.0703323183736 0.916757403898
-0.392026762413 -0.0701217820103 0.917277467967
-0.3908560932 -0.0699123845425 0.917792881263
-0.389691746037 -0.069704117899 0.918303696507
-0.388533676137 -0.0694969740689 0.918809965718
-0.387381839051 -0.0692909451016 0.919311740217
-0.384896196866 -0.0688463513887 0.920388557914
-0.383759221817 -0.0686429807543 0.920878385491
-0.382628347237 -0.0684407013102 0.921363890271
-0.381503529861 -0.0682395053178 0.921845120732
-0.380384726756 -0.0680393850976 0.922322124708
-0.377942098353 -0.0676024850461 0.923357825714
-0.376837737177 -0.0674049480152 0.923823518223
-0.375739261599 -0.0672084637412 0.924285145231
-0.37464662987 -0.0670130247562 0.924742751926
-0.373559800567 -0.0668186236508 0.925196382901
-0.372478732589 -0.0666252530732 0.925646082162
-0.371403385156 -0.0664329057294 0.926091893135
-0.369016680997 -0.0660062539298 0.927075975089
-0.367955201936 -0.0658163864792 0.927511278982
-0.366899320176 -0.0656275202214 0.92794284169
-0.3658489961 -0.0654396480704 0.928370704252
-0.363497753259 -0.0650190931504 0.929323356481
-0.362460975263 -0.0648336439572 0.929741168295
-0.361429634623 -0.0646491673474 0.930155419474
-0.360403692877 -0.0644656564416 0.930566148804
-0.358084693695 -0.0640505643827 0.931489601307
-0.35707198625 -0.0638694215287 0.931890709058
-0.356064560298 -0.0636892233746 0.932288427326
-0.353769484951 -0.0632787155494 0.933189667579
-0.352775065194 -0.0631008437782 0.933578082911
-0.351785811633 -0.0629238960838 0.933963235912
-0.349514387727 -0.0625176186674 0.934842895961
-0.348537914845 -0.0623429570184 0.935219053284
-0.347566494977 -0.0621691992019 0.935592070424
-0.345315830013 -0.0617668692844 0.93645172401
-0.344356973324 -0.0615953579587 0.936816036798
-0.342124540896 -0.0611960542099 0.937659768501
-0.339900191371 -0.0607979010732 0.938494259509
-0.338961187729 -0.0606299416192 0.938844674796
-0.336752316196 -0.0602348527352 0.939664642334
-0.335825510561 -0.060069075105 0.940006879056
-0.334903459072 -0.0599041478483 0.940346301196
-0.33271726766 -0.0595131156383 0.941146858289
-0.330539056023 -0.0591232199956 0.941938627141
-0.329636216675 -0.0589617299434 0.942265078976
-0.328737986924 -0.0588010644057 0.94258886625
-0.327844334222 -0.0586412175606 0.94291001698
-0.325692995889 -0.0582569345853 0.943679077866
-0.32481097722 -0.0580991672873 0.943992752005
-0.323933433308 -0.0579422003925 0.944303887633
-0.32306033266 -0.0577860282672 0.944612511244
-0.322191644044 -0.0576306453253 0.944918649
-0.321327336496 -0.057476046028 0.945222326732
-0.320467379309 -0.0573222248828 0.945523569951
0.166892553178 -0.332983990805 0.928045547137
-0.216338312842 0.431639836251 0.87571958192
-0.216269504922 0.431502836294 0.875804089686
-0.215534361709 0.43003607203 0.876706288146
-0.214803453943 0.428577758366 0.8775993284
-0.214742236357 0.428455130273 0.877674184004
-0.213354233433 0.425686260738 0.879358390245
-0.21263586527 0.424252966201 0.880224635801
-0.211921621723 0.422827901134 0.881082171122
-0.211211475336 0.421411010759 0.88193110428
-0.210505398765 0.420002240516 0.882771541823
-0.209803364775 0.418601536066 0.883603588795
-0.209105346245 0.417208843297 0.884427348767
-0.20841131617 0.415824108331 0.885242923848
-0.207721247667 0.414447277526 0.886050414716
-0.207035113972 0.413078297486 0.886849920634
-0.206352888447 0.411717115061 0.887641539472
-0.205674544578 0.410363677353 0.888425367727
-0.205000055984 0.409017931721 0.889201500548
-0.204329396409 0.407679825784 0.889970031749
-0.203662539733 0.406349307424 0.890731053835
-0.202999459969 0.405026324791 0.891484658016
-0.202340131265 0.403710826307 0.892230934233
-0.201684527907 0.402402760667 0.89296997117
-0.20167949659 0.402392265494 0.892975836922
-0.201030232572 0.401096849629 0.893704740286
-0.200384613336 0.39980870586 0.894426635033
-0.199098858526 0.397243810161 0.895855456992
-0.198461501079 0.395972148925 0.896559585229
-0.197827717647 0.394707618594 0.897256981
-0.197197483511 0.393450169851 0.897947724726
-0.196570774098 0.392199753666 0.898631895714
-0.195947564983 0.390956321307 0.899309572176
-0.194689284166 0.388445530674 0.900669835362
-0.194074081208 0.387218073084 0.901330913084
-0.193462308978 0.385997460509 0.901985751265
-0.192217207783 0.383512968826 0.903310770319
-0.191613322987 0.382308094125 0.90394958688
-0.191012799812 0.381109926549 0.904582408735
-0.190415614627 0.379918418953 0.90520930654
-0.189821743959 0.378733524502 0.905830349976
-0.189231164491 0.377555196674 0.906445607772
-0.188643853062 0.376383389256 0.907055147714
-0.188059786666 0.37521805635 0.907659036659
-0.187478942455 0.374059152366 0.908257340552
-0.186272856256 0.371653188305 0.909492347766
-0.185699514397 0.370509251748 0.910076142266
-0.185129328319 0.369371611632 0.910654569152
-0.184562275695 0.368240223411 0.911227690675
-0.183998334357 0.367115042853 0.911795568242
-0.183437482294 0.365996026041 0.912358262423
-0.182879697649 0.364883129371 0.91291583297
-0.182324958726 0.363776309551 0.913468338825
-0.181773243983 0.362675523598 0.914015838131
-0.181224532031 0.361580728842 0.914558388251
-0.180678801641 0.360491882923 0.91509604577
-0.180136031735 0.359408943787 0.915628866516
-0.17898043564 0.357103048648 0.916757010502
-0.178444666896 0.356034079009 0.917277076701
-0.177911796387 0.354970891949 0.917792492111
-0.177381803574 0.353913446487 0.918303309455
-0.17685466807 0.352861701948 0.918809580751
-0.176330369642 0.351815617966 0.91931135732
-0.175808888209 0.350775154472 0.9198086898
-0.175290203843 0.349740271706 0.920301628154
-0.174166224949 0.347498103818 0.921363768514
-0.173654226437 0.346476559531 0.921844999626
-0.173144965521 0.345460477323 0.922322004249
-0.17263842281 0.344449818502 0.922794829582
-0.172134579061 0.343444544674 0.9232635222
-0.171030305667 0.341241057405 0.924285223989
-0.170532957667 0.34024874463 0.924742830265
-0.170038250837 0.339261701537 0.925196460825
-0.169546166467 0.338279890799 0.925646159673
-0.169056685997 0.337303275382 0.926091970236
-0.168569791009 0.33633181854 0.926533935372
-0.168085463232 0.335365483818 0.926972097376
-0.167007604979 0.333214705297 0.927942034856
-0.166529512503 0.332260811948 0.928369901661
-0.166053931909 0.331311930323 0.92879410879
-0.164986920337 0.329183407733 0.92974060909
-0.164517469764 0.328246755671 0.930154863199
-0.164050476682 0.327315006815 0.930565595439
-0.163585923723 0.326388126516 0.930972844088
-0.162533814821 0.324288727173 0.931890326416
-0.162075250006 0.3233737951 0.932288046678
-0.161619072254 0.322463625714 0.932682414102
-0.161165264716 0.321558185397 0.933073464875
-0.160127512671 0.319487433853 0.933963039577
-0.159679554753 0.318593665361 0.934344966373
-0.158648712047 0.316537297149 0.935219078975
-0.158206537716 0.315655067058 0.935592095982
-0.157766647196 0.314777393648 0.93596200643
-0.156746684259 0.312742137546 0.936815260538
-0.156312475754 0.311875801543 0.937176554517
-0.154717500673 0.308693650222 0.938493860022
-0.154290080574 0.307840858068 0.938844277365
-0.153864857946 0.306992450328 0.939191801993
-0.153441817266 0.306148396028 0.939536464606
-0.152442948424 0.304155230424 0.940346076337
-0.152025393571 0.303322122079 0.940682714823
-0.150455819419 0.300190648678 0.941938756422
-0.150044862019 0.299370703202 0.942265207596
-0.149636002831 0.298554944097 0.942588994213
-0.149229227041 0.297743341802 0.942910144292
-0.148824519958 0.296935867007 0.943228685497
-0.148421867014 0.296132490648 0.943544645141
-0.148021253766 0.295333183906 0.943858050195
-0.147052674894 0.293400458113 0.944611921365
-0.146657260129 0.292611523989 0.944918062099
-0.146263839559 0.291826568697 0.945221742788
-0.145872399209 0.291045564351 0.945522988943
-0.145482925219 0.290268483301 0.945821825754
-0.271965222919 -0.254492163265 0.928045611142
0.0552562765039 0.0517057725049 0.99713251727
0.352429675087 0.329786813383 0.875804762397
0.352318741651 0.329683227721 0.875888391087
0.351126195438 0.328567299335 0.876786133949
0.349940491962 0.327457774059 0.87767480213
0.348761586391 0.326354609941 0.878554508513
0.346508339297 0.324245910902 0.880225289378
0.345344416593 0.323156767772 0.881082820949
0.344187170591 0.322073872379 0.881931750381
0.343036556729 0.320997183026 0.882772184223
0.341892530624 0.31992665818 0.883604227519
0.34075504808 0.318862256485 0.884427983839
0.339624065092 0.317803936763 0.885243555293
0.338499537848 0.316751658018 0.886051042559
0.337381422735 0.315705379438 0.886850544899
0.336269676344 0.314665060402 0.887642160183
0.335164255469 0.313630660483 0.888425984909
0.334065117116 0.312602139445 0.889202114224
0.332972218502 0.311579457257 0.889970641943
0.332945977214 0.311555110325 0.88998898279
0.331863776057 0.310542437628 0.890746781399
0.330787679543 0.309535477366 0.891497223391
0.329717646052 0.308534190596 0.892240397603
0.328653634187 0.307538538578 0.892976391639
0.327595602772 0.306548482783 0.893705291887
0.326543510856 0.305563984891 0.89442718354
0.325497317714 0.304585006792 0.89514215061
0.32445698285 0.303611510593 0.895850275948
0.323422465998 0.302643458614 0.89655164126
0.322393727121 0.301680813392 0.897246327128
0.32032886384 0.299748411408 0.898632465944
0.319313290081 0.298798086116 0.899310139224
0.317262556818 0.296879259756 0.900670403182
0.316260030618 0.295941143266 0.901331477735
0.315263095096 0.295008258268 0.90198631277
0.314271711201 0.294080568219 0.902634982113
0.312250074323 0.292188641377 0.90395004781
0.311271470155 0.291272910539 0.904582867102
0.310298305539 0.290362269773 0.90520976236
0.310360919547 0.290421034793 0.905169443899
0.308368142209 0.288556115516 0.906446058554
0.307411067754 0.28766053115 0.907055596003
0.306459281369 0.286769895107 0.907659482473
0.305512745819 0.285884172543 0.908257783909
0.304571424125 0.285003328855 0.908850565356
0.303635279559 0.284127329676 0.909437890973
0.30270427565 0.283256140877 0.910019824047
0.301778376178 0.282389728565 0.910596427004
0.299841080181 0.280577044268 0.911795946945
0.298927122844 0.279721806393 0.912358639054
0.298018164141 0.278871246003 0.912916207543
0.297114168714 0.27802533001 0.913468711354
0.296215101457 0.277184025565 0.914016208631
0.295320927518 0.276347300055 0.914558756736
0.2944316123 0.275515121105 0.915096412254
0.293547121455 0.274687456574 0.915629231013
0.292667420888 0.273864274558 0.916157268089
0.291792476753 0.273045543385 0.916680577818
0.290922255455 0.272231231618 0.91719921381
0.289058657354 0.27048718084 0.918303750188
0.288199644628 0.26968335807 0.91881001911
0.287345255169 0.268883861532 0.919311793321
0.286495456255 0.268088660603 0.919809123461
0.285650215407 0.267297724895 0.920302059491
0.284809500397 0.266511024247 0.920790650712
0.283973279235 0.265728528726 0.921274945769
0.282154636503 0.264026867168 0.922322381011
0.28132918085 0.263254445091 0.922795204334
0.280508123395 0.26248613864 0.923263894957
0.279691433023 0.261721918697 0.923728498839
0.278879078858 0.260961756369 0.924189061333
0.277091746421 0.259289391267 0.925196830756
0.276289852581 0.258539016821 0.925646527645
0.275492202024 0.25779261304 0.926092336263
0.274698764739 0.25705015184 0.926534299468
0.27390951095 0.256311605357 0.926972459553
0.273124411115 0.255576945949 0.927406858263
0.271373752554 0.253938587536 0.928370335688
0.270598753525 0.253213380484 0.928794540539
0.269827818907 0.252491976715 0.929215125705
0.268095219752 0.250870825201 0.930155246295
0.267334214152 0.250158712158 0.93056597653
0.266577184949 0.249450320039 0.93097322319
0.265824104071 0.248745622575 0.931377024059
0.264115191835 0.247146634435 0.932288424539
0.263371811389 0.246451013808 0.932682789998
0.262632293413 0.2457590075 0.93307383882
0.260940988389 0.24417619372 0.93396348269
0.260211003327 0.243493108341 0.934345407191
0.259484796434 0.242813558393 0.934724139134
0.257811131782 0.2412472725 0.935592418653
0.257094291933 0.240576488204 0.935962327436
0.256381147514 0.239909161915 0.936329162864
0.254724378939 0.238358964717 0.937176874828
0.253073581239 0.236814354204 0.938015311241
0.251428770211 0.23527505085 0.93884462184
0.250735833373 0.234626633608 0.939192144699
0.250046452211 0.233981543598 0.939536805555
0.248418497238 0.232458307042 0.940346417932
0.247738056292 0.231821582513 0.940683054671
0.244510939845 0.228801489373 0.942265503325
0.243844668402 0.228178024842 0.942589288434
0.243181792039 0.227557737262 0.942910437015
0.242522286816 0.226940604232 0.943228976733
0.241866128995 0.226326603538 0.9435449349
0.241213295037 0.225715713154 0.943858338488
0.239634704887 0.22423866738 0.944612210521
0.238990342868 0.223635704298 0.944918349795
0.238349230565 0.223035782143 0.945222029035
0.2377113452 0.222438879603 0.945523273751
0.23707666419 0.221844975544 0.945822109132
-0.321184936233 0.188604255834 0.928045619255
0.065256091582 -0.038319357728 0.997132523457
0.416213227956 -0.244404994333 0.875804057778
0.416081677554 -0.24432818075 0.875887993807
0.414673304616 -0.243501167171 0.87678573895
0.4132730128 -0.242678898923 0.877674409396
0.41188074916 -0.241861344917 0.87855411803
0.41049646093 -0.241048474168 0.879424976144
0.409120095531 -0.240240255801 0.880287093468
0.407751600576 -0.239436659053 0.881140578188
0.406390923878 -0.238637653281 0.881985536971
0.405038013455 -0.237843207959 0.882822074987
0.403692817535 -0.237053292686 0.88365029593
0.402355284563 -0.236267877188 0.884470302041
0.401025363205 -0.235486931322 0.88528219413
0.398441534233 -0.233969259926 0.886849891023
0.397128583198 -0.23319828061 0.88764151003
0.397080758899 -0.233170612085 0.887670173303
0.395780775252 -0.232407246005 0.888450589479
0.394488150035 -0.231648200883 0.889223374923
0.393202833334 -0.23089344741 0.889988622288
0.39192477549 -0.230142956425 0.890746422932
0.390653927095 -0.229396698916 0.891496866944
0.389390239 -0.228654646021 0.892240043164
0.388133662315 -0.227916769032 0.892976039193
0.386884148411 -0.227183039393 0.893704941421
0.385641648928 -0.226453428707 0.89442683504
0.384406115769 -0.22572790873 0.895141804062
0.38317750111 -0.22500645138 0.895849931339
0.381955757397 -0.224289028733 0.896551298578
0.380740837349 -0.223575613024 0.897245986358
0.379532693963 -0.222866176652 0.897934074149
0.377103415912 -0.221439281692 0.89930954528
0.37591073228 -0.220738924719 0.899980804501
0.374724691849 -0.220042468707 0.900645722404
0.372317724606 -0.21863108182 0.901986675071
0.371146924417 -0.217943568723 0.902635342399
0.369982634746 -0.217259878709 0.903277916861
0.367603882127 -0.215862655829 0.904583163487
0.366454598115 -0.215187778574 0.905210057099
0.365311692915 -0.214516647055 0.905831096373
0.364175121653 -0.213849234921 0.906446350035
0.363044839755 -0.213185515999 0.907055885872
0.361920802946 -0.21252546429 0.907659770742
0.360802967255 -0.211869053972 0.908258070589
0.359691289007 -0.211216259399 0.908850850458
0.35858572483 -0.210567055104 0.909438174508
0.357486231651 -0.209921415791 0.910020106026
0.356392766695 -0.209279316345 0.910596707438
0.355305287489 -0.208640731822 0.911168040324
0.354223751854 -0.208005637456 0.911734165428
0.353148117912 -0.207374008654 0.912295142676
0.352078344081 -0.206745821 0.912851031181
0.349823194658 -0.20542119772 0.914016336838
0.34876719559 -0.20480109992 0.914558884245
0.347716934562 -0.20418437158 0.915096539072
0.346672371012 -0.203570988881 0.915629357143
0.345633464674 -0.202960928177 0.916157393536
0.344600175577 -0.202354165998 0.916680702587
0.343572464044 -0.201750679044 0.917199337906
0.342550290693 -0.20115044419 0.917713352387
0.340357607073 -0.199862511041 0.918809923754
0.339348591631 -0.199270003762 0.919311698478
0.338344997522 -0.198680679961 0.919809029126
0.337346786389 -0.198094517115 0.920301965662
0.336353920169 -0.197511492873 0.920790557385
0.335366361086 -0.196931585052 0.921274852941
0.333219092807 -0.195670327324 0.922322155862
0.33224424634 -0.195097885554 0.922794980386
0.331274594054 -0.194528493871 0.923263672201
0.330310099201 -0.193962130695 0.923728277267
0.329350725315 -0.193398774614 0.924188840937
0.328396436216 -0.192838404382 0.924645407968
0.326293406178 -0.19160313065 0.925646181546
0.325351395746 -0.191049971609 0.926091991993
0.324414361104 -0.190499734406 0.926533957014
0.323482267086 -0.189952398394 0.926972118904
0.322555078804 -0.189407943084 0.927406519405
0.320485274061 -0.188194304785 0.928370665605
0.319570019915 -0.187656852266 0.928794868725
0.318659565741 -0.187122218372 0.929215452171
0.317753877658 -0.186590383205 0.929632455398
0.316852922051 -0.186061327027 0.930045917346
0.314821136618 -0.184867895237 0.930973422418
0.313931766136 -0.184345642981 0.931377222249
0.313047025647 -0.183826109528 0.931777613591
0.311036153208 -0.18264496158 0.93268286647
0.310162799059 -0.182132115297 0.933073914895
0.309293974234 -0.181621928699 0.933461682405
0.30730377247 -0.18045292225 0.934345297134
0.306446137464 -0.179949307401 0.934724029647
0.305592932944 -0.179448294193 0.93509960381
0.303623158568 -0.17829128633 0.935962175945
0.302780949705 -0.177796730835 0.936329012153
0.300824823229 -0.1766477396 0.937176611863
0.0284572902439 -0.0167105158361 0.999455322309
0.298048220985 -0.175018979611 0.938368592155
0.296112678952 -0.17388207513 0.939192368641
0.295298536845 -0.173403997935 0.939537028348
0.294488564279 -0.172928369161 0.939878856368
0.292572850792 -0.171803111535 0.940683165496
-0.248950681703 0.146187120387 0.957419909921
0.287974923382 -0.169102841518 0.942589344568
0.287192081609 -0.168643146047 0.942910492864
0.286413221076 -0.168185788414 0.943229032297
0.285638313748 -0.167730752158 0.943544990183
0.284867331828 -0.167278020954 0.943858393491
0.28410024775 -0.166827578618 0.94416926885
0.28333703418 -0.166379409098 0.944477642557
0.282577664017 -0.165933496479 0.944783540577
0.281822110384 -0.165489824978 0.94508698855
0.279982268587 -0.164409297318 0.945822135622
0.0889728119448 0.358363936371 0.929332624975
-0.0186848136658 -0.0752589296156 0.996988952422
-0.11626597097 -0.468297692764 0.8758878324
-0.115872428558 -0.46671257717 0.876785578469
-0.115481144257 -0.465136556826 0.877674249836
-0.115092103271 -0.463569572141 0.878553959384
-0.114705290858 -0.462011563729 0.879424818407
-0.114320692324 -0.460462472412 0.880286936633
-0.113938293031 -0.458922239229 0.881140422249
-0.113558078397 -0.457390805444 0.881985381923
-0.113180033896 -0.455868112551 0.882821920824
-0.112804145061 -0.454354102281 0.883650142645
-0.112430397486 -0.45284871661 0.884470149629
-0.112058776828 -0.451351897762 0.885282042584
-0.111689268805 -0.449863588215 0.886085920908
-0.111321859201 -0.448383730709 0.886881882609
-0.110956533865 -0.446912268246 0.887670024324
-0.110593278714 -0.445449144101 0.888450441343
-0.110232079731 -0.44399430182 0.889223227626
-0.10987292297 -0.442547685229 0.889988475822
-0.109515794553 -0.441109238434 0.890746277293
-0.109160680677 -0.439678905829 0.891496722127
-0.108807567605 -0.438256632096 0.892239899162
-0.108456441678 -0.436842362209 0.892975896001
-0.108107289307 -0.435436041439 0.893704799033
-0.107760096978 -0.434037615354 0.894426693451
-0.107414851252 -0.432647029823 0.895141663267
-0.107071538765 -0.431264231021 0.895849791331
-0.10673014623 -0.429889165424 0.896551159353
-0.106390660434 -0.428521779821 0.89724584791
-0.106053068243 -0.427162021307 0.897933936473
-0.105374160337 -0.424425219801 0.899310579906
-0.105040887503 -0.423082866084 0.89998183336
-0.104709470993 -0.421747989254 0.900646745536
-0.10437989791 -0.420420537366 0.901305391459
-0.103710331455 -0.417724878977 0.902635082762
-0.103384991837 -0.416414474791 0.903277658667
-0.103061458741 -0.415111346917 0.903914213509
-0.102739719524 -0.413815444442 0.904544818112
-0.102079880766 -0.4111575628 0.905830644489
-0.101762286377 -0.409878355441 0.906445900654
-0.101446449435 -0.408606226729 0.907055438976
-0.101132357569 -0.407341126834 0.907659326313
-0.10081999849 -0.406083006265 0.908257628609
-0.100509359995 -0.404831815869 0.908850410911
-0.100200429964 -0.40358750683 0.909437737377
-0.0998931963623 -0.402350030668 0.910019671294
-0.0995876472363 -0.401119339243 0.910596275087
-0.0992837707176 -0.399895384749 0.911167610338
-0.0989815550206 -0.398678119716 0.91173373779
-0.0986809884431 -0.39746749701 0.91229471737
-0.0983820593656 -0.39626346983 0.91285060819
-0.0980847562517 -0.39506599171 0.91340146857
-0.0974565884381 -0.392537012145 0.914558312775
-0.0971631126448 -0.391354946234 0.915095970704
-0.0968712289019 -0.390179292805 0.915628791857
-0.0965809259577 -0.38901000654 0.916156831308
-0.0962921926431 -0.387847042451 0.916680143397
-0.0960050178715 -0.386690355883 0.917198781732
-0.0957193906381 -0.385539902511 0.917712799207
-0.09510657858 -0.383069511745 0.918810365572
-0.094824627784 -0.381933872598 0.91931213792
-0.0945441918817 -0.380804335128 0.91980946621
-0.0942652601556 -0.379680856166 0.920302400404
-0.0939878219693 -0.378563392873 0.920790989801
-0.0937118667672 -0.37745190273 0.921275283046
-0.0934373840737 -0.376346343547 0.921755328141
-0.0928392285669 -0.373938204109 0.922795262854
-0.0925682778248 -0.372846867662 0.923263953166
-0.0922987682299 -0.371761335872 0.923728556738
-0.0920306895926 -0.3706815677 0.924189118926
-0.0917640318028 -0.369607522422 0.924645684485
-0.0914987848284 -0.368539159632 0.925098297584
-0.0909129362738 -0.366180569053 0.926092127634
-0.0906511006194 -0.365125943245 0.92653409194
-0.0903906455248 -0.364076878077 0.926972253118
-0.0901315612411 -0.363033334283 0.927406652913
-0.0898738380963 -0.361995272906 0.927837332521
-0.0892983130913 -0.359677007399 0.928793982338
-0.0890439029081 -0.358652290468 0.929214570429
-0.0887908245195 -0.357632937758 0.929631578267
-0.0885390685333 -0.356618911439 0.930045044795
-0.0879712085662 -0.354329704357 0.930973429843
-0.0877226896828 -0.353328722059 0.931377229635
-0.0874754645688 -0.352332950795 0.931777620939
-0.0869133546654 -0.350069942307 0.932682745779
-0.0866693119117 -0.34908698597 0.93307379483
-0.0864265347938 -0.348109127366 0.933461562962
-0.0858702034695 -0.345869383154 0.934345052939
-0.0856305537784 -0.344904118284 0.934723786715
-0.085392142101 -0.343943839905 0.935099362132
-0.0851549597209 -0.342988512909 0.935471812963
-0.0846062682275 -0.340776563947 0.936329596265
-0.0843721399011 -0.339833543432 0.936693388877
-0.0838274529306 -0.337639498613 0.937535347126
-0.0832844365224 -0.335453367999 0.93836812634
-0.0827433834459 -0.333275140657 0.939191787185
-0.0825158862995 -0.332358823964 0.939536449874
-0.082289554253 -0.33144720008 0.939878280853
0.0693689785201 0.279404462162 0.9576643939
-0.0062613406773 -0.0252194629224 0.999662330141
-0.0800329666942 -0.322357081633 0.943228835524
-0.0798164330218 -0.3214849265 0.943544794407
-0.0796009962319 -0.320617189395 0.943858198705
-0.079386648622 -0.319753839292 0.944169075049
-0.0791733825543 -0.31889484543 0.944477449733
-0.0789611904553 -0.318040177303 0.944783348722
-0.0787500648153 -0.317189804662 0.945086797659
0.3688820038 0.0163363405287 0.92933265909
-0.0774678138957 -0.00343073646279 0.99698895072
-0.48204099986 -0.0213476905549 0.875888549167
-0.480409362631 -0.0212754317913 0.876786291122
-0.478787087614 -0.0212035876431 0.877674958401
-0.477174113472 -0.0211321553938 0.878554663889
-0.475570379074 -0.0210611323362 0.879425518877
-0.473975823503 -0.0209905157727 0.880287633096
-0.472390386069 -0.0209203030154 0.881141114732
-0.470814006311 -0.0208504913868 0.881986070451
-0.469246624006 -0.0207810782197 0.882822605424
-0.467688179174 -0.0207120608581 0.883650823344
-0.466138612087 -0.0206434366567 0.884470826452
-0.464597863273 -0.0205752029817 0.885282715557
-0.463065873522 -0.020507357211 0.886086590058
-0.461542583892 -0.0204398967343 0.88688254796
-0.460027935713 -0.0203728189533 0.887670685903
-0.458521870594 -0.0203061212821 0.888451099175
-0.457024330424 -0.0202398011472 0.889223881736
-0.455535257379 -0.0201738559878 0.889989126237
-0.454054593925 -0.0201082832559 0.890746924036
-0.452582282824 -0.0200430804167 0.891497365224
-0.451118267133 -0.0199782449485 0.892240538637
-0.449662490211 -0.0199137743428 0.89297653188
-0.448214895723 -0.0198496661047 0.893705431341
-0.446775427638 -0.0197859177529 0.894427322211
-0.445344030238 -0.0197225268198 0.895142288503
-0.443920648115 -0.0196594908517 0.89585041307
-0.442505226176 -0.0195968074087 0.896551777616
-0.441097709646 -0.0195344740649 0.897246462722
-0.439698044069 -0.0194724884089 0.897934547858
-0.436884548716 -0.0193478148344 0.899309486859
-0.435502792516 -0.019286622551 0.899980746406
-0.434128732642 -0.0192257711061 0.900645664632
-0.432762315626 -0.019165258132 0.901304316563
-0.429985353253 -0.0190423578616 0.902635022916
-0.4286364881 -0.0189826219363 0.903277599154
-0.427295112822 -0.0189232177081 0.903914154326
-0.425961175009 -0.0188641428559 0.904544759257
-0.423225950157 -0.0187429373117 0.90583028069
-0.421909196274 -0.0186846236958 0.90644553887
-0.420599728797 -0.0186266327649 0.907055079192
-0.419297496433 -0.0185689622474 0.907658968515
-0.418002448239 -0.0185116098873 0.908257272784
-0.416714533618 -0.0184545734438 0.908850057045
-0.415433702323 -0.0183978506916 0.909437385456
-0.414159904451 -0.0183414394209 0.910019321303
-0.412893090448 -0.018285337437 0.910595927014
-0.411633211107 -0.0182295425607 0.911167264168
-0.410380217563 -0.0181740526281 0.911733393512
-0.409134061299 -0.0181188654906 0.912294374968
-0.407894694142 -0.0180639790146 0.912850267652
-0.406662068261 -0.0180093910821 0.913401129883
-0.404056737755 -0.0178940874597 0.914558885096
-0.402839980414 -0.0178402020514 0.915096539918
-0.401629823764 -0.0177866089618 0.915629357985
-0.400426221155 -0.017733306125 0.916157394374
-0.39922912628 -0.0176802914902 0.91668070342
-0.398038493172 -0.0176275630217 0.917199338735
-0.396854276205 -0.0175751186989 0.91771335321
-0.394314851788 -0.0174625888133 0.918809477341
-0.393145877212 -0.0174108197201 0.919311254466
-0.391983183402 -0.0173593287761 0.919808587498
-0.390826725921 -0.0173081140136 0.920301526401
-0.389676460672 -0.0172571734798 0.920790120474
-0.388532343891 -0.0172065052363 0.921274418362
-0.387394332146 -0.0171561073599 0.921754468067
-0.384913436418 -0.0170463114353 0.922795248
-0.383790068855 -0.0169965618773 0.92326393839
-0.382672676319 -0.0169470769299 0.923728542042
-0.381561216564 -0.0168978547221 0.924189104307
-0.380455647673 -0.0168488933977 0.924645669944
-0.379355928052 -0.0168001911146 0.925098283119
-0.376928731624 -0.0166926026598 0.926091835777
-0.375843151033 -0.0166445268196 0.926533801622
-0.374763294288 -0.0165967044648 0.926971964331
-0.373689120973 -0.0165491338053 0.927406365644
-0.372620590985 -0.0165018130653 0.92783704676
-0.370232254677 -0.016396114082 0.928794511741
-0.369177464733 -0.0163494016305 0.929215097058
-0.368128196448 -0.0163029337113 0.929632102142
-0.36708441088 -0.0162567085998 0.930045565935
-0.364728727495 -0.0161524547615 0.930973712596
-0.363698367308 -0.016106824009 0.931377510915
-0.362673371099 -0.0160614308067 0.931777900756
-0.360344551641 -0.015958232282 0.932682764355
-0.359332745337 -0.0159134233902 0.93307381331
-0.358326186385 -0.0158688468829 0.933461581346
-0.356018696408 -0.0157667262295 0.934345812936
-0.355025104855 -0.0157227238045 0.934724542782
-0.35403664614 -0.0156789486935 0.935100114297
-0.353053284125 -0.0156353992962 0.935472561253
-0.350779713513 -0.0155346486925 0.936329144734
-0.349809012522 -0.0154916601778 0.936692939668
-0.347548589225 -0.0153916228398 0.937535639896
-0.345298896813 -0.0152919007375 0.938368173816
-0.343054749539 -0.0151925839497 0.939192538414
-0.342111542993 -0.0151508129361 0.939537197251
-0.341173166981 -0.0151092558483 0.939879024407
0.287604851149 0.0127368785904 0.957664461865
-0.0259596716002 -0.00114965142127 0.999662329865
-0.33181815257 -0.0146949024949 0.943228908307
-0.330920399842 -0.0146551446073 0.943544866821
-0.33002719481 -0.0146155881191 0.943858270753
-0.329138505541 -0.0145762316159 0.944169146733
-0.328254300367 -0.0145370736955 0.944477521055
